ply
format ascii 1.0
element vertex 1305
property float x
property float y
property float z
property uchar red
property uchar green
property uchar blue
end_header
2.89057 -4.63555 8.55705 117 118 109
4.50869 0.26939 7.54 210 218 207
4.68948 0.751516 7.59892 214 222 212
2.14728 1.87751 8.66714 150 131 133
-3.61278 -3.72716 12.1957 77 78 73
4.12433 0.0870402 7.80205 199 206 198
4.53521 1.05193 7.67127 180 187 177
-2.44351 1.91727 9.84791 71 81 77
-1.90403 2.5609 9.69574 139 134 148
-2.01904 -1.48752 9.17476 140 129 128
3.63818 1.6917 8.19528 187 191 181
4.76244 0.397813 7.62346 116 122 113
4.51941 -0.712009 7.78447 186 191 182
3.91489 -0.281464 8.14976 57 60 54
4.90338 0.321062 7.63122 202 209 200
-4.64723 1.19708 10.7614 114 121 117
4.68853 0.245815 7.603 217 226 216
4.25569 0.0271388 7.82894 218 226 217
1.28541 0.994646 8.65682 135 141 138
4.28288 -1.14369 7.79168 163 168 159
4.28288 -1.14369 7.79168 163 168 159
4.17252 1.17626 7.71456 191 200 192
4.17252 1.17626 7.71456 191 200 192
4.34856 0.152577 7.73148 220 226 217
2.63007 -1.83863 8.60868 203 210 202
-6.47133 -1.33765 10.7653 100 114 108
-1.74379 1.2422 9.85602 138 141 142
-5.2651 0.634811 10.6078 203 215 208
-4.01259 0.0614668 22.0412 121 114 128
-5.60654 1.42957 10.568 109 117 108
-5.27547 -0.706234 10.5197 160 170 162
-4.37741 0.767123 12.1955 137 134 152
-5.17716 -1.04346 10.3795 209 216 210
4.78059 0.608415 7.55934 158 165 154
-1.42149 -0.323457 9.75648 87 88 86
-4.91661 -0.0552623 10.428 146 156 148
-5.23281 1.50251 10.5367 118 129 119
4.34686 0.80759 7.67384 150 158 148
-2.26653 0.369632 9.94643 79 81 80
-4.39059 -0.034215 10.5982 79 84 79
4.13514 -0.923044 8.16532 57 61 54
4.77296 0.361258 7.5611 200 207 198
4.77296 0.361258 7.5611 200 207 198
-2.265 3.66847 9.79441 98 104 100
3.96224 1.20427 9.46827 51 50 52
-5.99419 0.0346111 10.8075 58 64 61
-5.99419 0.0346111 10.8075 58 64 61
3.90556 2.04583 9.55219 61 60 61
-3.05958 0.0950756 9.78569 98 102 100
-5.3953 -0.107513 10.629 120 127 119
-4.8443 1.5626 10.4392 113 119 112
-4.86622 1.57616 10.4898 109 116 109
4.73596 0.913615 7.55717 215 222 212
4.75051 -0.030202 7.69278 185 190 180
4.80623 0.814058 7.73446 167 175 165
4.37267 -0.92978 9.70005 132 117 135
-1.09317 -2.2264 9.66883 113 109 122
-0.660388 -0.223951 9.5658 77 85 82
-6.41459 -1.67606 10.8043 181 163 165
-5.28994 -2.26462 10.698 206 214 208
-1.34644 -0.119071 9.59021 129 124 140
3.29534 -0.340812 8.94311 93 98 87
4.49372 1.03376 7.7258 180 189 178
-0.0327791 0.802276 9.31453 104 115 117
-4.52939 -2.25367 10.4784 207 216 211
4.28322 1.06609 7.75983 213 220 209
4.13829 0.135756 9.34847 96 100 93
4.15399 0.140358 9.38012 95 100 94
3.78381 1.67483 8.26872 116 121 114
-5.04251 3.15966 10.525 99 107 100
4.27296 1.21076 7.69889 163 173 164
-4.34471 -0.101248 10.5357 193 202 198
4.54866 -0.69863 7.77183 218 223 214
4.32189 1.23715 7.72263 228 235 227
-5.88756 -0.456656 10.7157 117 109 110
4.02061 0.963523 9.52084 65 62 63
4.63542 0.920317 7.52746 211 219 210
4.63542 0.920317 7.52746 211 219 210
4.26273 0.898477 7.7511 106 111 105
4.26273 0.898477 7.7511 106 111 105
4.26273 0.898477 7.7511 106 111 105
-5.44116 1.49623 10.6614 47 54 47
-4.22738 -0.199076 10.4995 43 50 49
4.22348 0.031631 9.78323 178 163 180
4.03323 1.28585 9.73442 180 165 183
3.68721 1.76027 8.26851 56 61 56
4.45283 0.376832 7.63378 112 120 111
-1.60791 2.49608 9.60731 102 100 100
-1.61078 2.50481 9.63004 109 107 108
4.73038 0.24833 7.72536 189 196 187
-1.00257 2.04981 9.40273 217 217 215
4.18165 -0.478383 7.82626 176 180 171
4.26207 0.937413 7.72705 219 229 218
1.18012 0.158041 9.20131 131 139 138
-5.89375 1.44479 10.9315 204 214 205
-4.91729 -2.46083 10.5302 50 58 51
4.16906 -0.398077 7.7884 222 225 219
4.52065 0.646784 7.59144 100 110 100
4.44775 -1.11393 7.88664 154 159 150
-5.69142 -1.57711 10.7173 141 150 143
2.367 0.981509 8.55157 219 228 222
2.35308 0.968563 8.49454 210 219 212
-5.75727 -0.0248104 10.5887 228 235 229
4.51228 0.513779 7.66931 127 135 124
-3.00502 1.8417 9.96113 210 211 207
3.28895 -1.97413 8.25916 208 214 206
-0.725081 -3.44163 9.40825 71 67 67
-5.80485 0.0294702 10.7216 175 184 177
4.25292 1.1056 7.72323 114 121 115
4.91223 0.798452 7.48564 219 226 217
4.91223 0.798452 7.48564 219 226 217
3.32736 -1.97519 8.45061 75 79 73
4.36153 0.907035 7.70005 142 151 143
1.99702 -3.1478 8.74178 147 138 142
2.57832 -1.79118 8.52332 83 85 82
2.56438 -1.78829 8.48183 87 87 86
2.05947 -4.57886 8.92439 195 200 191
4.19394 0.939685 7.67368 156 165 155
4.2159 -0.665738 7.89874 158 165 156
4.2159 -0.665738 7.89874 158 165 156
-5.28262 -1.69134 10.5694 135 144 136
4.99116 0.696335 7.51427 140 146 140
4.99116 0.696335 7.51427 140 146 140
4.37164 -1.81953 9.58406 159 140 159
-5.08206 -0.906835 10.564 196 207 200
4.59722 1.03198 7.57541 197 203 195
4.49867 1.04603 7.67853 213 221 210
-5.17233 -0.131813 10.5696 198 208 202
4.04519 0.389336 9.35557 103 106 99
4.5451 0.466733 7.56498 172 180 168
4.02308 1.08616 9.49304 103 111 103
4.02629 1.08771 9.49639 106 111 104
-1.71334 1.6215 9.32668 101 104 99
-2.18062 -2.69285 9.63809 218 228 222
-5.1381 -2.44046 10.4821 224 230 224
4.92514 0.433002 7.54206 121 128 122
5.02046 0.723122 7.44669 111 118 113
4.09135 -0.408342 7.83282 167 172 160
4.59233 0.707631 7.62838 117 125 119
4.59233 0.707631 7.62838 117 125 119
3.96431 0.371494 8.11669 64 67 61
4.8008 0.900559 7.50799 201 209 199
4.43535 0.57608 7.76122 179 185 175
4.43535 0.57608 7.76122 179 185 175
4.57084 -0.302678 7.64973 219 223 214
4.43762 -0.490765 7.82017 194 200 193
-2.12481 3.69239 9.75607 225 233 229
3.94663 1.39745 9.72463 226 208 227
4.5335 -2.33376 9.7495 151 132 147
4.07859 -0.665159 7.86249 151 157 145
4.52638 0.414848 7.60076 97 105 95
4.52638 0.414848 7.60076 97 105 95
4.84793 0.197687 7.64387 212 219 211
4.84793 0.197687 7.64387 212 219 211
-4.69663 0.0154918 10.5222 110 117 110
3.53236 2.54481 9.11955 207 186 202
4.36183 1.13168 7.71386 180 187 178
4.61384 -0.516186 7.75261 186 191 182
-3.49045 -3.65794 12.159 97 101 103
4.35137 1.0657 7.77611 99 103 96
-3.0807 0.220921 10.2086 134 144 140
4.14756 0.81268 7.64863 221 227 221
-4.68368 0.164253 10.33 180 188 182
4.69828 0.927514 7.55582 133 141 133
4.7637 0.295055 7.61533 211 220 210
4.80613 0.379745 7.55582 150 158 149
4.53959 0.477583 7.51175 206 212 201
4.23825 0.8938 7.77878 212 220 211
3.92253 2.01561 9.59828 75 72 75
-5.62971 -1.55636 10.7389 166 176 171
4.83299 0.489394 7.63175 142 149 141
-1.82403 -2.77389 9.64099 87 90 88
4.26955 1.03412 7.78088 94 103 95
4.69163 0.167065 7.61791 206 212 201
4.16736 -0.738741 7.77429 157 161 152
4.80563 0.101331 7.6677 214 221 211
4.80563 0.101331 7.6677 214 221 211
4.56767 0.951124 7.59151 216 224 213
4.56767 0.951124 7.59151 216 224 213
4.31107 0.801738 7.7762 215 223 212
4.13492 0.350093 9.49696 107 111 104
4.13492 0.350093 9.49696 107 111 104
-6.50195 -1.67129 10.7039 124 137 130
-5.64883 0.661789 10.9404 204 210 204
-4.00023 0.261347 22.0283 124 117 131
4.46506 0.913774 7.68984 142 151 141
4.2671 0.974503 7.70166 167 175 167
4.64156 0.906567 7.68608 201 209 200
-5.64476 -2.29876 10.7105 221 227 220
4.65828 -2.46431 9.82345 131 114 130
4.89195 0.780887 7.50274 107 115 108
4.57997 -0.511529 7.64531 215 220 210
4.57997 -0.511529 7.64531 215 220 210
4.48385 1.14072 7.66301 219 225 216
4.19061 0.0336896 7.83437 221 228 218
4.45273 -0.783991 7.77102 169 175 165
4.45273 -0.783991 7.77102 169 175 165
4.24253 0.987274 7.73007 216 223 213
3.87271 2.19104 9.47777 109 117 110
4.43321 0.196635 7.6882 158 166 157
4.7232 -0.187625 7.67271 177 185 172
4.74409 0.181085 7.64308 158 164 154
4.35482 1.00261 7.64042 194 202 191
4.19241 0.046801 7.77633 168 174 165
4.78663 0.170634 7.59529 158 165 156
4.78663 0.170634 7.59529 158 165 156
-0.648237 1.52027 9.60634 114 117 115
4.77848 0.799731 7.577 144 152 143
-0.858617 1.45802 9.48028 98 100 105
4.85392 0.337418 7.54036 148 157 147
4.7517 0.180957 7.60494 212 219 209
4.7517 0.180957 7.60494 212 219 209
2.75396 1.93598 8.41812 107 110 105
-6.05754 0.771904 10.7469 110 119 114
-5.41582 -1.70963 10.6035 147 156 147
4.22804 -0.849645 9.76151 173 158 175
-1.53379 0.48622 9.84121 71 77 73
4.9909 0.686696 7.41441 199 207 201
4.73188 0.880306 7.58224 119 127 119
-5.71452 -0.962446 10.6143 121 126 116
-2.54012 3.62782 9.85881 65 69 61
4.50571 -1.83307 9.5277 53 47 51
3.84007 1.8875 9.53051 196 179 197
4.8366 0.883216 7.54338 134 141 132
4.25745 -0.702956 7.80863 197 203 194
3.80015 1.15414 8.20652 41 45 39
-4.33328 0.0248731 10.2017 127 136 130
4.95977 0.479693 7.55529 211 218 212
2.76581 -3.00928 8.63971 127 132 124
4.58805 0.784004 7.65698 117 124 117
4.23397 1.19654 7.70239 225 231 225
4.93476 0.831148 7.4971 112 118 112
4.33938 1.18976 7.73076 214 222 213
-3.49394 -0.608241 10.0437 66 69 66
-5.16327 -0.936931 10.6737 54 64 56
-5.16327 -0.936931 10.6737 59 70 62
-5.21711 -0.889699 10.4764 130 138 130
4.23162 -0.854445 9.64988 196 178 197
-4.62529 1.46691 10.7246 70 77 70
4.53966 0.974146 7.66433 214 221 209
4.53966 0.974146 7.66433 214 221 209
4.01529 0.0708702 8.18702 50 52 43
4.87152 0.743301 7.56337 112 120 114
4.87152 0.743301 7.56337 112 120 114
4.5757 0.908729 7.60597 200 208 200
4.10332 -1.40165 9.68668 129 117 121
-4.53897 -2.22477 10.3207 216 227 220
-4.53897 -2.22477 10.3207 216 227 220
-5.76282 -0.0226036 10.7304 206 213 207
-4.86437 -0.0388244 10.4274 229 239 233
4.03831 -0.46544 7.82271 139 147 133
4.88602 0.403357 7.56425 123 128 120
4.88602 0.403357 7.56425 123 128 120
-1.67007 -2.26171 9.75189 95 93 102
4.23416 1.14364 7.70711 215 224 216
4.89123 0.122468 7.75565 174 180 170
4.21227 0.0581482 7.76394 219 225 216
5.01965 0.59509 7.51742 200 205 198
4.89552 0.749499 7.49202 196 204 196
4.89552 0.749499 7.49202 196 204 196
-4.65108 1.35317 10.7473 118 128 122
3.91137 1.43768 7.83445 202 208 203
4.46401 0.980928 7.71853 211 217 206
4.32932 1.02749 7.64942 216 224 217
-3.85197 -3.37238 11.0525 47 52 46
-2.53461 1.71386 9.74372 131 123 135
3.64483 -3.60433 8.40627 165 170 159
-0.439148 2.44969 9.66213 140 123 130
4.42738 0.0201112 7.73397 196 204 195
-2.12145 0.450698 10.3431 165 154 176
-2.12145 0.450698 10.3431 165 154 176
4.61802 0.996231 7.61448 198 205 196
4.23101 0.0377276 7.73311 190 195 188
-6.8894 -1.09171 10.9083 83 87 83
4.99704 0.657797 7.51209 207 215 209
4.72547 0.204895 7.59572 212 218 208
4.89043 0.425422 7.53784 196 203 196
-6.02865 0.786351 10.7891 162 155 154
-3.8771 0.267884 10.2148 229 237 232
-2.06293 3.68187 9.72947 231 241 235
-2.06293 3.68187 9.72947 231 241 235
4.25185 -1.8641 9.58188 69 58 63
-5.14477 -1.46854 10.5233 222 231 224
-0.997203 -3.49738 9.58812 92 94 94
5.02869 0.652805 7.47513 211 217 211
4.5549 1.07818 7.61338 98 107 102
3.82015 1.8095 9.55085 208 189 208
3.90849 0.496398 7.86239 89 96 85
4.50637 0.778628 7.6489 212 219 209
-1.01496 -0.709187 4.17466 164 156 175
4.97772 0.758865 7.53569 205 214 207
2.0722 2.49983 8.51885 184 190 181
4.34416 -0.853239 9.43773 56 52 57
4.73049 0.646496 7.5814 147 156 146
-4.82795 0.00124237 10.4563 214 224 216
4.73021 -0.0233194 7.60949 204 209 200
-4.39223 -0.0922051 10.4912 197 203 201
4.12019 -0.777004 7.91021 157 163 152
-3.07406 0.00573879 9.85118 112 114 115
4.599 -2.30805 9.8135 161 143 156
4.51654 0.718491 7.55574 121 129 120
-3.289 -0.581139 10.0879 100 103 106
4.36704 1.04546 7.79789 214 220 211
4.87953 0.743032 7.52958 190 198 190
4.69772 -0.050698 7.6689 216 224 213
-5.10269 -0.677005 10.4655 73 86 77
4.6763 0.122897 7.56983 186 193 182
-4.97719 -2.51635 10.7677 197 207 200
-2.7927 3.73327 9.92392 107 102 107
-2.69308 3.67248 9.87417 208 217 212
-2.69308 3.67248 9.87417 208 217 212
4.52281 1.04072 7.66683 173 181 170
4.81504 0.86878 7.5785 125 132 125
4.98072 0.621571 7.51788 202 209 202
8.32612 4.78489 27.2812 133 110 113
1.14269 2.4108 8.95938 124 122 119
3.86134 2.01792 9.73257 214 195 211
4.16446 0.245754 9.43347 85 89 81
-5.48378 -1.71482 10.5908 158 167 158
-4.23869 -0.00370583 10.0929 132 141 135
4.31636 -1.48447 8.45457 84 86 80
-5.30986 1.00103 10.5098 69 80 70
-3.97878 -2.80931 11.223 103 109 103
-5.13429 -2.50368 10.6264 200 207 200
4.64763 -0.296136 7.64807 214 219 211
-0.762753 -3.47831 9.49696 225 230 229
-0.762753 -3.47831 9.49696 225 230 229
4.9896 0.489138 7.5603 120 126 121
4.9896 0.489138 7.5603 120 126 121
-5.95681 -0.960553 10.6335 216 224 216
-5.55697 -1.72712 10.6539 150 159 151
2.32698 0.973552 8.55786 108 109 105
3.81684 2.63562 9.55247 118 124 115
4.64166 0.471408 7.63255 128 136 124
2.40168 0.989808 8.56474 117 116 112
0.848108 -0.903311 13.2581 135 114 119
0.570943 -0.988836 13.324 125 105 109
-0.282134 -1.06801 13.5611 128 108 114
0.909251 -0.496828 14.3817 124 111 115
0.931762 -0.884199 13.2355 124 105 109
0.930379 -0.884018 13.2326 127 107 112
-0.536869 -1.0564 13.626 195 176 186
-0.274295 -1.13187 13.5619 184 164 172
-0.164477 -1.10476 13.5278 123 101 103
-1.53606 -1.23773 13.9028 110 95 106
-1.21053 -1.19929 13.8187 165 145 155
-0.045097 -0.964572 13.5125 158 138 144
-0.0244436 -1.08623 13.4993 179 159 165
0.647749 -1.00364 13.3091 121 102 103
0.715968 -0.878302 13.2976 184 165 170
11.6993 1.80979 25.3721 54 57 52
2.46719 -0.977447 8.04454 144 126 128
-2.28263 0.574372 9.55262 224 232 229
-2.28263 0.574372 9.55262 224 232 229
11.5744 1.09474 26.2403 62 65 57
3.90437 0.766215 7.83104 198 203 191
0.300275 -2.28497 9.12877 217 225 221
4.01885 -0.114645 7.93682 56 58 51
4.02391 0.908521 9.5274 56 53 54
4.06461 -2.16937 7.65324 53 55 49
-2.61191 -2.93653 9.80718 201 212 206
4.1448 -0.987944 8.17125 52 53 47
2.15548 0.115091 4.43893 46 49 44
3.86089 1.49684 8.28014 77 79 70
4.29167 1.06089 7.75666 214 221 211
4.29167 1.06089 7.75666 214 221 211
4.00688 -0.459845 8.00287 58 60 49
10.8829 8.65353 26.6994 61 68 58
-4.1633 1.85744 10.3534 78 87 81
-5.60539 3.06323 10.6102 230 240 230
-3.01491 0.077983 9.63176 109 113 109
-2.02082 3.61229 9.84176 89 95 86
4.34841 1.06518 7.77077 94 98 92
2.46914 -0.915916 8.01457 140 119 122
-2.96685 1.83083 9.9703 142 136 147
4.51177 0.453827 7.71117 71 78 69
-1.28149 0.0533878 28.7553 213 196 211
1.69665 -0.719044 13.0457 187 168 176
0.484084 -0.909576 13.364 190 171 181
0.659841 -1.62408 13.3026 118 98 101
-1.73261 -1.7212 13.9423 161 142 152
1.89976 -0.739622 12.9843 87 77 84
1.89976 -0.739622 12.9843 87 77 84
0.616068 -1.5922 13.3171 172 154 159
0.718535 -1.55596 13.2926 119 102 103
-0.583625 -1.0917 13.6124 140 118 128
0.443285 -0.956592 13.3669 118 99 105
0.503142 -1.60552 13.3545 154 136 138
1.55151 -0.832632 13.0883 176 158 165
-0.0752107 -1.69733 13.5031 137 118 123
-0.623437 -1.07201 13.6565 177 160 168
-2.50697 0.585047 9.60813 135 125 138
3.987 -0.354348 8.02781 191 194 182
3.61295 1.85159 8.27508 198 203 192
3.61295 1.85159 8.27508 198 203 192
3.83326 1.75786 7.94732 206 212 203
-4.92885 3.09471 10.434 233 242 235
3.90648 1.31551 8.1295 47 50 41
0.540262 -1.35916 8.36996 149 133 138
4.12785 -0.498754 8.16707 150 153 140
4.12785 -0.498754 8.16707 151 154 141
-4.05385 1.87231 10.1586 230 240 233
1.99009 1.71435 8.72594 142 131 133
-5.53852 1.0854 10.669 215 222 214
-5.53852 1.0854 10.669 213 218 211
-0.115575 -0.988787 13.5315 188 165 174
-1.52427 -1.302 13.9508 189 171 184
-5.55482 1.29834 10.6505 213 220 212
5.97259 6.46123 28.1832 132 108 114
-4.07748 -0.811346 9.85815 74 77 72
-2.03141 3.75967 9.7596 149 144 161
4.32223 1.75626 7.82816 215 219 210
-0.426487 -1.0362 13.6238 211 189 202
4.04226 1.07464 9.7079 166 150 171
-5.44736 2.18264 10.6067 223 231 223
5.19415 -1.21135 10.7121 159 164 156
4.33646 -1.55673 9.48649 185 166 182
-0.0402331 -1.02273 13.4963 122 101 106
0.34855 -2.43648 8.98067 225 232 228
4.43006 1.27256 7.82845 193 198 186
0.980928 -0.855699 13.2194 207 188 199
-5.94961 -0.247996 10.7078 214 223 212
8.00631 7.31278 27.4246 142 116 119
0.0665297 -0.00632537 9.18086 85 95 96
4.28913 1.76009 7.88127 220 227 216
-5.45885 -1.53796 10.5994 162 171 163
-4.92357 -0.096716 10.4069 207 216 208
-2.57523 -1.40906 14.2324 95 79 85
-4.73448 0.767454 10.423 123 130 122
4.31315 1.72753 7.86301 190 196 185
4.31315 1.72753 7.86301 190 196 185
-4.60571 1.61374 11.0362 127 134 126
-0.268491 2.83294 9.36547 217 230 225
4.31769 1.77108 7.88086 186 190 181
-1.53582 -1.23749 13.9002 115 98 111
-3.97306 0.865865 10.1566 87 93 86
4.30727 -2.75936 9.53803 123 112 114
-4.61131 -1.51436 9.90212 127 132 126
4.53699 1.68718 7.81449 123 131 120
-2.14966 -2.67826 9.65958 108 112 107
-2.24312 -1.35538 14.1334 108 92 98
-4.61835 0.171509 10.3226 164 172 164
3.80721 2.69295 9.69983 167 148 161
4.40568 1.8043 7.84929 90 95 85
0.716842 -0.918322 13.3001 125 105 108
4.01651 0.301257 8.30178 45 47 40
4.48115 -9.43192 23.4111 176 157 170
-1.13648 -2.1727 9.16096 175 185 182
4.03815 0.285849 8.27804 71 74 64
3.94027 1.88981 9.48787 94 97 90
4.042 -0.497052 8.06947 58 60 49
-1.25539 -1.22889 13.8382 213 191 206
-2.19548 -2.74805 9.68874 234 240 238
-3.61235 -1.77071 9.61581 62 68 62
-3.61235 -1.77071 9.61581 62 68 62
-4.67799 0.259456 10.5674 222 229 223
-6.20928 0.496222 11.2463 225 232 225
4.65205 -1.79439 7.59978 226 232 223
-3.98895 0.305106 10.4461 223 230 225
-4.12247 -2.92749 10.2167 99 107 100
3.56021 2.67223 9.82617 83 71 71
7.31211 0.286694 19.0428 48 39 36
-0.25949 -1.45725 13.5555 127 106 112
-0.25949 -1.45725 13.5555 127 106 112
-0.103766 -1.48993 13.5231 135 115 119
0.730921 -1.3083 13.3089 167 147 152
-5.21932 -0.532181 30.1355 147 141 155
-0.164481 -1.44857 13.5325 128 109 113
-3.8423 -2.33029 9.54415 73 79 75
-0.172612 -1.06939 13.5066 137 114 116
6.93908 -0.601145 22.9843 138 117 116
6.93908 -0.601145 22.9843 138 117 116
0.471126 -1.04158 13.347 109 90 94
1.796 -0.878791 13.023 121 102 103
0.359004 -1.01653 13.3786 156 139 143
0.37247 -1.14264 13.3831 116 99 101
-1.51232 -1.18513 13.8781 183 165 178
0.512823 -1.00368 13.3412 190 171 179
0.520386 -1.11693 13.3555 187 169 175
0.880713 -1.11363 13.2584 180 162 169
0.453917 -1.13941 13.358 107 89 92
-0.161895 -1.21928 13.5331 117 96 100
-1.36355 -1.21736 13.8644 152 133 143
-0.314125 -1.17015 13.5686 165 146 155
-0.639495 -1.11912 13.6586 152 132 138
1.57631 -0.869242 13.0784 124 104 106
-0.105525 -1.15483 13.5155 138 115 117
1.60336 -0.794241 13.0573 115 96 101
-0.15892 -1.16124 13.5353 177 158 163
-4.25664 -2.95995 10.3011 85 92 85
0.353574 0.363532 8.71904 150 129 140
0.915309 -0.825372 8.93296 78 86 87
-1.38643 -1.299 13.9153 207 188 202
-2.45439 -1.40241 14.2026 108 91 96
-3.57915 -0.124319 9.80603 99 102 95
-0.282386 -1.07008 13.5779 136 114 120
-2.33707 -1.36891 14.1532 117 99 104
-6.03307 0.0474628 10.7919 185 198 188
4.37098 -1.93166 9.52434 158 140 157
4.15516 -0.115269 9.35291 64 66 60
0.850216 -0.844147 13.2777 168 147 153
4.01869 0.92293 9.66552 198 176 193
-0.444428 -1.20741 13.5995 192 169 181
-2.39468 -1.42405 14.2024 156 138 144
3.06757 1.00012 8.41526 47 39 37
-2.36639 -1.48805 14.2182 98 81 84
-1.19102 1.59405 9.4025 82 75 78
-0.671917 -2.24271 9.15466 69 64 64
3.45089 -1.86247 8.19915 92 83 82
-0.412421 -2.51645 9.22282 231 240 236
-0.014762 1.21518 0.173106 208 213 205
11.6993 1.80979 25.3721 56 59 53
3.40024 1.94763 8.13363 208 212 200
3.40024 1.94763 8.13363 211 215 204
3.82169 -1.06187 8.09487 69 70 65
12.0552 1.47354 25.5882 190 193 180
12.0552 1.47354 25.5882 190 193 180
4.10847 8.6424 28.9428 158 135 140
-0.281891 2.22189 5.50751 225 232 228
12.0116 -8.44395 26.6419 100 96 94
3.20219 -0.363855 8.36041 71 64 61
9.7333 0.367388 26.415 94 81 80
-3.96662 -3.69314 10.2024 73 81 72
-1.69339 1.41465 9.69146 220 228 224
10.8859 -3.27582 25.7101 92 83 83
-4.67984 0.691551 10.4625 226 234 228
1.08608 -2.47816 8.94404 229 237 233
3.98243 0.523737 8.06924 69 75 65
4.23638 -1.47865 7.83712 206 211 198
0.363264 2.29315 5.799 112 99 107
0.83986 3.16939 9.05039 149 133 135
0.367673 1.84096 5.28837 112 100 104
-4.03774 2.87356 10.5048 136 130 141
8.2598 6.20776 26.9812 119 96 97
3.70241 2.17576 7.95175 65 69 61
6.06183 2.08728 27.0176 248 225 235
-5.68904 2.5637 10.7999 228 236 228
4.09849 -0.893963 7.87239 69 72 64
4.21001 -1.4428 7.93453 72 77 66
8.01535 5.35531 27.1656 136 114 113
10.0407 0.716411 26.7866 92 82 79
0.679212 0.470565 1.72547 96 86 85
3.85439 -9.8368 30.1979 230 235 232
0.612406 -1.46488 13.3533 172 153 160
-3.29331 -1.42285 14.4167 139 124 128
-1.37229 -2.16457 9.10003 105 103 111
4.41581 -0.777175 7.83228 198 202 191
-1.27849 1.73933 9.34207 70 66 69
6.31306 -9.75081 25.5601 149 121 130
6.31306 -9.75081 25.5601 149 121 130
3.91072 1.6479 9.45472 62 58 55
2.90237 8.0188 28.995 153 132 139
4.19351 -0.711589 7.78284 221 226 213
-1.13507 -2.54885 9.5488 81 86 82
-5.67865 -2.34979 10.6745 63 71 65
4.17165 -0.674584 7.81865 137 142 130
4.17165 -0.674584 7.81865 137 142 130
-0.320287 -1.00708 13.5491 206 185 197
4.08975 0.709104 9.62387 67 59 60
-5.33953 -3.89071 10.5636 103 110 103
5.67848 -9.74733 30.1372 195 180 193
0.871215 -0.874426 9.03445 181 190 188
0.413077 -2.50048 9.15109 153 138 145
-1.06771 2.9561 9.66112 73 80 75
4.28774 -0.925289 9.53065 137 122 139
-1.00341 1.64906 9.2268 105 94 99
11.0602 -4.00408 26.7743 82 73 71
-1.03282 -3.34069 9.50745 78 84 80
4.37089 -1.11358 7.75363 163 168 157
-1.32748 -0.993326 9.59278 92 98 97
4.39894 -1.13247 7.74427 222 227 216
-5.31989 -3.87072 10.6232 227 235 227
4.13645 -1.11353 9.73295 85 72 75
4.13645 -1.11353 9.73295 85 72 75
3.74105 3.70257 9.6743 67 62 63
4.18834 0.0275331 7.77752 152 155 143
4.16195 -0.757747 7.76393 181 186 175
-1.68295 -1.14879 14.0415 113 98 105
6.17994 2.03117 26.7419 135 115 122
-3.22653 -2.82347 10.0137 97 102 99
4.59857 -2.94882 9.45894 163 147 160
4.30665 -1.94013 9.60194 75 64 72
0.941096 -1.10754 23.7576 181 157 164
4.01512 0.665134 9.33906 126 125 113
-1.46655 -2.74487 9.59448 124 115 127
3.72898 3.59407 9.70458 164 148 164
-2.94171 0.588036 25.3189 108 105 113
3.93764 0.683118 8.21698 62 64 55
-5.29442 -0.903294 10.6174 174 183 174
0.0313827 -0.944992 13.2793 180 161 171
-2.56769 -1.89167 14.1183 65 59 53
-2.11918 -1.32925 14.0659 116 97 105
4.18241 -0.8653 9.66851 212 193 215
4.35556 -0.371176 12.3356 157 138 140
3.75775 3.47057 9.74067 165 151 164
8.33564 6.18013 26.1582 136 131 128
-20.2071 2.75844 37.2307 176 172 168
2.23415 1.26494 4.79354 76 80 72
4.10703 -0.842789 7.83767 174 178 165
-5.0415 1.57823 10.67 138 148 138
3.30163 -1.98583 8.29538 205 211 202
4.34197 -1.04337 9.16357 66 70 61
0.251056 3.91449 9.41602 163 150 152
4.08557 0.398338 7.78702 120 124 115
4.70078 -3.01245 9.5102 120 111 119
2.93875 1.63167 8.44749 159 144 146
-5.45109 -0.926904 10.6762 172 179 171
-2.61708 -2.75515 9.79716 196 207 198
4.16946 -0.490567 7.80775 171 175 164
-5.08288 -2.32788 10.5181 216 225 215
4.02143 0.756736 9.38419 107 110 103
4.20642 0.888333 7.72453 209 212 200
3.9343 1.57546 9.4366 106 109 100
3.80589 1.7732 8.24231 77 80 70
-5.35136 1.53092 10.7839 145 155 145
4.52248 -9.66345 26.1186 179 160 170
12.9598 -6.20941 25.9662 63 67 60
3.92549 1.62326 9.40276 99 102 93
3.78852 1.68938 8.27166 112 116 106
3.38054 3.76377 10.3745 172 154 158
3.72123 3.79872 9.76062 176 162 176
4.11994 -1.10807 9.60443 124 112 117
3.66769 3.51891 9.76766 221 201 217
-3.85698 0.272014 10.234 100 107 101
-2.33317 3.61586 10.188 177 184 178
3.9313 3.31918 8.97202 81 84 74
-4.38421 -0.108259 10.6134 191 201 195
1.58671 -1.22585 13.1131 126 107 109
9.10619 -11.6512 28.1221 72 78 71
-2.83809 -1.44295 14.3359 140 123 131
7.02452 3.96868 27.0262 105 96 96
-6.16322 0.139789 11.0335 201 216 203
-4.65399 -0.576203 10.4551 208 218 211
3.70187 3.52878 9.52314 64 60 60
2.24 9.67032 26.6289 200 183 198
1.07955 -1.32066 13.2106 167 148 151
6.39147 -9.60703 24.9449 175 151 161
3.73669 -1.92291 8.20844 103 105 99
-6.05349 -0.0326421 10.8583 215 225 216
-2.61802 -1.8658 14.1997 215 178 90
-2.61802 -1.8658 14.1997 215 178 90
3.75071 3.34008 9.53903 101 103 95
3.73321 3.32197 9.48609 98 99 92
-3.92673 0.614425 21.8316 148 143 160
-0.55112 0.583847 9.34587 214 223 218
-2.54378 3.62842 10.3075 149 152 142
2.063 -0.815251 4.86178 48 41 38
3.80749 2.61803 9.42074 114 118 109
9.29219 6.5803 27.5577 170 149 155
1.96409 7.44307 24.3579 169 155 165
1.09528 -0.82462 13.1884 218 199 211
4.07753 -0.219544 9.63817 219 197 213
12.4946 2.25058 34.9873 134 118 122
3.92678 1.83869 9.47146 104 107 101
3.27612 -1.97758 8.33535 49 53 46
8.38739 6.64905 27.3041 141 119 122
1.84087 -0.816519 12.9813 136 115 119
-0.460696 -1.51961 13.606 183 162 171
1.67723 -1.27444 12.9378 164 143 148
9.81027 3.3413 24.7446 174 169 166
3.93619 0.833581 9.652 211 188 203
-3.81644 0.256428 21.4543 146 140 156
4.08057 -0.685952 7.86829 158 162 151
-0.0237058 -0.881756 13.5747 138 120 121
6.55227 9.27202 27.8869 132 108 110
4.19679 -0.856826 9.5811 231 209 230
4.09243 0.383412 7.76271 213 217 205
4.10124 -0.788137 7.87545 159 165 155
4.79136 3.77454 27.6636 156 132 140
-5.75263 1.45556 10.9285 201 211 202
10.6254 -3.46676 26.4084 53 45 44
-2.7326 -2.25598 16.4785 69 61 48
-4.6276 -1.52125 9.93607 126 131 125
4.5852 -2.64849 9.23937 48 50 45
-3.72641 -1.03452 21.4438 101 94 107
-2.19548 -2.74805 9.68874 234 240 238
-0.00109992 0.0528136 9.18569 220 227 224
0.000824758 0.0516392 9.23373 221 228 224
4.02958 1.03325 9.54355 52 50 51
-2.62989 -1.67738 6.54153 87 92 88
-5.66054 0.0502783 10.6794 130 140 133
3.92641 1.77913 9.51083 63 61 58
5.83763 -7.36328 29.2877 163 142 151
5.85034 10.2767 27.8757 131 108 110
6.65793 -0.655625 16.6173 42 35 34
3.97592 -6.00077 25.2382 216 219 217
2.40346 0.829706 6.57962 48 40 38
-1.00681 -1.13002 13.7638 203 181 195
-5.46778 -1.56298 10.75 100 111 102
-2.5218 -2.14058 14.0902 80 74 59
-2.5218 -2.14058 14.0902 80 74 59
0.0257403 -1.44827 8.62477 100 100 95
-1.7676 -3.57084 9.73433 185 198 189
3.79177 0.478707 8.10015 148 155 146
1.87235 -0.866679 13.0028 158 139 142
1.75605 -1.4574 13.02 121 100 101
0.658714 -1.55408 13.3171 157 141 145
1.81297 -1.50897 13.0039 190 172 180
1.92701 -0.787961 12.9907 165 149 153
1.83664 -1.55182 12.9962 131 115 121
0.976677 -1.66852 13.2179 143 124 128
0.716646 -0.827495 13.3184 125 106 110
1.67527 -1.49821 13.0381 185 169 177
0.458562 -0.866058 13.4006 131 113 118
-3.46942 -1.45444 14.5089 141 126 129
-2.49811 -1.46085 14.1942 161 144 150
-5.3957 0.888004 10.9246 165 175 168
3.82893 2.73359 9.54611 117 125 116
3.89157 1.57643 8.35082 75 78 70
3.91581 1.02115 9.73482 122 109 113
4.02924 -1.01965 8.1583 56 57 52
3.15064 -0.207295 8.34606 89 80 79
3.15881 -0.144396 8.38458 92 81 80
-4.98301 0.729352 10.5111 145 154 145
0.0119023 -1.04957 13.4679 190 169 178
1.09929 -0.826428 13.221 218 197 211
4.12959 0.00734198 9.39667 93 96 88
-3.49448 -1.50751 14.5097 75 60 58
-3.47273 -2.87814 9.99733 212 220 214
-1.04289 -1.13601 13.7996 206 185 199
0.540772 -2.01209 8.63973 153 136 147
-3.00147 -1.43324 9.87612 53 50 48
2.29873 1.02015 8.34552 212 218 212
2.3136 1.02478 8.38987 209 215 208
3.03419 0.952996 8.60452 211 217 208
2.94519 0.484748 8.21045 206 213 204
1.0493 3.33116 8.69163 230 234 228
3.6595 0.549203 7.99363 195 197 185
3.11732 -0.325887 8.36902 167 172 165
-4.5346 -0.129474 10.6149 55 61 57
-4.20228 -2.87202 10.2796 227 236 230
4.29614 -1.83908 8.02112 40 44 35
-3.17658 -0.523126 9.86351 205 210 205
-3.19679 -0.527755 9.94015 206 211 206
4.29582 -1.94112 9.65544 70 63 65
-1.89192 3.03151 9.7702 229 235 231
-1.73882 -1.78442 9.14742 81 87 81
3.70737 2.71291 9.39205 72 69 68
0.0237426 -1.45172 8.62425 125 118 118
3.98772 0.523151 8.11093 49 53 45
0.57564 1.45492 8.89561 171 183 180
3.84747 0.864437 9.69632 102 87 89
-2.58873 2.75864 10.0886 93 97 94
-1.1007 2.59839 8.93962 115 105 108
3.90631 -0.0707925 9.64602 114 103 105
-0.0592075 3.84132 9.25226 144 145 139
-4.34007 0.75434 12.042 142 135 146
4.44603 -1.17456 9.45018 83 85 78
-5.33953 -3.89071 10.5636 103 110 103
-4.98702 -3.84711 10.4789 94 103 94
-3.91467 -3.65865 10.9998 101 108 100
4.34554 -1.90974 9.62011 213 192 209
-2.48207 2.08907 10.0007 97 100 98
-2.90265 -1.38556 9.96542 144 150 142
-0.0340402 0.778005 9.16812 78 87 88
4.12086 0.13619 9.31263 97 100 92
4.12086 0.13619 9.31263 97 100 92
-0.211872 2.21478 9.28572 76 84 82
-1.59422 2.46935 9.49524 134 131 136
-4.18701 -3.10259 10.1495 187 194 187
-4.79935 -0.0802987 10.4981 217 225 218
-4.92687 -0.0154586 10.3958 231 239 231
-0.703409 1.43674 9.24434 120 113 117
-0.703409 1.43674 9.24434 120 113 117
4.01335 0.860099 9.5799 168 147 160
-2.87056 -0.554546 9.87697 96 97 95
-5.63498 -1.5703 10.7216 129 139 131
-5.48332 -3.91649 10.6408 71 77 71
-3.56288 -0.129883 9.75824 98 99 94
3.73301 2.88661 9.61015 180 159 174
4.02853 0.757595 9.39764 106 111 102
-2.60521 -2.92739 9.93842 110 114 114
4.51312 -2.07745 9.47455 65 61 62
3.92549 1.62326 9.40276 99 102 93
3.28519 -1.98335 8.35981 50 55 47
4.14715 -0.390334 7.80825 167 162 156
-2.07308 -3.62895 9.71018 130 118 125
-4.21786 -4.16679 10.4454 178 184 176
-4.21786 -4.16679 10.4454 178 184 176
-4.42243 -4.05661 10.3494 207 214 206
0.0699533 -9.1615 29.2009 132 113 120
-3.02484 -7.08478 21.4451 102 95 107
-3.95866 1.12245 10.0676 231 237 231
-3.97029 0.865355 10.1474 83 89 82
4.16808 -0.0393513 9.39186 51 57 49
4.16652 -1.09865 9.62037 108 95 100
3.81574 2.44144 9.45351 95 99 89
-3.38657 0.0857683 9.61705 235 236 231
-0.755099 2.14952 9.23661 215 215 209
0.238244 -1.79042 8.53146 238 241 238
-3.32818 -2.86213 9.76638 235 242 237
-3.11306 -4.37195 9.66282 234 243 236
2.17401 1.79558 8.55116 219 225 217
2.17401 1.79558 8.55116 219 224 218
3.78108 -0.803593 7.84186 192 195 186
3.78108 -0.803593 7.84186 192 195 186
-3.24656 1.92876 10.3368 230 236 230
-3.24656 1.92876 10.3368 230 236 230
3.75375 0.271471 8.11445 188 191 178
2.05273 1.90399 8.57965 219 224 217
-5.67152 -2.61876 10.5732 232 239 231
-3.42054 2.08129 10.413 227 233 229
-3.42054 2.08129 10.413 227 233 229
4.11995 -1.31977 7.65109 210 213 199
-3.45215 -3.58158 9.98626 73 78 72
-3.02724 -0.350548 10.0324 218 223 221
-3.02724 -0.350548 10.0324 218 223 221
2.17086 0.877363 8.49783 202 211 206
-2.70818 2.71797 10.3521 226 233 225
-3.98157 -3.52974 10.199 82 90 83
-0.350316 2.98113 9.50661 221 228 224
-6.57224 1.68933 11.3439 228 239 230
-5.63867 -2.60091 10.5076 233 240 232
-3.03112 -1.28682 10.0248 155 158 147
-3.03746 -1.29241 10.0563 155 158 147
-0.363964 -1.18187 13.561 211 189 202
3.05239 -0.464518 8.33673 138 142 133
-3.89344 -4.31222 9.94174 238 245 239
2.55068 -2.21886 8.38282 224 230 223
-4.37913 -5.19036 10.2613 215 224 216
-3.14686 0.914634 9.9027 213 220 216
-6.53655 2.20341 11.5464 224 233 222
-4.38005 -5.19177 10.0774 51 63 57
2.44452 -1.68901 8.27241 213 220 213
2.44452 -1.68901 8.27241 213 220 213
-4.00104 1.70801 10.4884 77 82 75
-4.00104 1.70801 10.4884 77 82 75
2.55803 -2.21366 8.41851 222 230 222
-4.59936 -4.42128 10.1517 236 245 237
-1.88906 2.80125 9.92087 228 234 228
-1.88906 2.80125 9.92087 228 234 228
-5.52762 0.604699 10.9218 223 231 223
-5.15855 -1.44588 10.5922 223 231 223
-4.74706 -5.19084 10.1947 219 228 220
-5.50629 -3.05688 10.6528 225 236 228
4.02752 -0.481315 7.97436 144 146 134
3.82395 1.36089 8.08431 152 156 142
3.82395 1.36089 8.08431 152 156 142
4.02451 -0.36804 7.77451 184 189 175
4.68981 -1.60666 7.63913 227 231 221
-5.3481 -3.78334 10.4834 232 237 232
-4.08862 -4.38695 10.0975 211 219 212
1.69637 -0.772825 12.9425 130 109 115
-5.69401 -2.35861 10.7018 59 68 61
2.54171 -2.01344 8.47681 222 228 222
-3.31462 -6.00976 10.4663 57 62 52
4.0005 -0.106096 7.80511 181 184 170
-4.29288 -5.37871 9.93791 89 101 93
4.16219 0.034228 7.72949 144 148 137
-2.80774 -4.39717 9.60255 144 133 146
1.05387 3.53802 9.13523 156 140 144
1.6178 -0.918968 13.0611 163 142 147
-3.26816 1.83214 10.2744 101 106 100
-2.50312 -2.3183 9.32048 120 122 119
4.32095 -1.06602 9.39272 124 112 122
-5.21575 -0.692257 10.6965 54 62 57
4.09523 0.12136 7.75265 194 197 187
4.33139 -0.911522 7.70484 180 186 174
-5.26095 -4.57205 10.3563 59 67 62
2.3182 0.9673 8.5196 127 108 111
-0.255834 2.88753 9.41791 140 126 130
-4.91278 -3.7721 10.3072 94 102 95
-4.94482 2.34319 11.2827 67 73 65
-4.91262 1.58373 10.8292 210 220 212
-5.01918 1.599 10.8479 147 159 149
4.04641 0.389069 7.79063 221 224 213
4.04641 0.389069 7.79063 221 224 213
-5.33623 -1.5338 10.6559 143 151 143
-0.323187 3.21175 9.52027 121 119 118
-0.845033 1.54177 9.2289 91 91 93
-0.520993 -1.16978 13.6186 184 162 171
-4.86851 -2.45498 10.4168 67 77 68
-1.51911 0.584993 9.64931 80 86 83
3.15064 -1.31478 8.24522 90 91 83
-5.25182 -1.5238 10.6536 131 140 132
-5.25182 -1.5238 10.6536 131 140 132
-3.163 1.16594 10.1813 82 86 82
-4.83757 -5.42319 10.0756 207 214 206
-5.01893 -4.78188 10.2444 149 160 152
-0.411806 3.9036 9.6943 109 108 104
4.09003 0.0196475 9.49073 194 173 191
1.03974 3.45307 9.11751 161 140 145
-5.45664 -3.10965 10.5994 109 116 110
-5.43424 -3.09605 10.5582 111 118 111
4.37177 -0.951068 7.72594 224 230 218
-4.83935 -3.77841 10.3272 87 94 86
-4.83935 -3.77841 10.3272 87 94 86
3.24532 -1.90252 8.32221 143 147 140
0.0651631 -0.00920006 9.25204 79 87 87
3.92397 1.54369 9.45419 55 51 50
4.48756 -0.712404 7.67907 223 227 216
4.48756 -0.712404 7.67907 223 227 216
4.07396 -0.392918 7.7847 158 163 150
3.74192 3.37743 9.5777 61 57 58
4.45392 -0.845357 7.65846 152 156 145
4.45392 -0.845357 7.65846 152 156 145
4.41144 -0.78499 7.76848 219 223 212
1.57927 -0.977033 12.9872 128 108 110
4.14911 -0.239209 9.52915 183 163 180
4.51944 -1.05494 7.67716 189 194 182
4.51944 -1.05494 7.67716 189 194 182
-0.140103 -1.29647 13.5393 189 167 175
-0.140103 -1.29647 13.5393 189 167 175
2.57155 -1.81512 8.44076 223 230 221
4.40969 -1.23221 9.52761 129 117 130
-5.8044 0.0739362 11.0443 217 227 219
3.92948 -1.07313 8.01989 60 63 55
3.92948 -1.07313 8.01989 60 63 55
-5.46865 -1.56252 10.7489 127 139 129
3.76201 3.32176 9.62179 78 72 72
-5.08666 2.30549 11.6454 67 73 64
4.45378 -0.820467 7.68789 217 223 211
-5.99206 2.35673 11.3221 138 145 137
-4.58317 -0.804488 10.4812 156 165 159
2.38102 0.976693 8.45433 126 107 110
-5.67429 -1.58869 10.7987 126 136 127
-3.22767 0.962801 10.1145 218 226 221
1.90014 -2.8971 8.60464 67 74 71
0.590275 -1.11328 13.316 126 105 108
-6.87883 0.501689 11.3534 225 228 221
1.09258 -2.22942 8.90454 65 72 71
-2.33411 -1.56717 14.1925 169 147 154
0.3604 -2.33823 9.1389 70 77 76
-1.81506 2.77959 9.95587 102 104 105
-2.39824 -4.93087 9.49089 105 110 103
4.16898 -0.00275953 7.80668 216 219 208
1.08371 4.19948 9.18107 128 129 128
-6.32775 1.45425 11.4043 151 161 152
-4.12125 -3.68935 10.1491 92 99 91
1.25068 -3.0082 8.83577 113 117 113
2.42444 1.10714 8.50916 189 195 188
4.35838 -0.469653 7.68864 194 198 188
-5.00218 -4.7792 10.1604 228 239 231
-9.1678 -2.31174 16.3864 177 156 160
3.65434 3.34985 9.87575 111 96 98
-3.9254 0.0706476 10.3166 214 222 217
3.6589 4.34171 9.64589 110 116 105
-2.23748 -0.174218 10.0273 190 195 192
-1.57073 -1.35338 13.8848 166 148 161
-1.65889 1.73511 9.72486 95 98 97
1.17645 3.40353 9.13415 121 125 119
3.88445 1.4539 9.59516 190 169 180
-3.19236 1.01378 10.2723 104 112 110
-5.4874 0.66752 10.9674 49 59 51
-3.46722 -5.20596 10.553 84 88 81
3.88453 1.5316 9.74934 194 173 182
-2.15556 -2.67485 9.70261 106 108 105
-6.51772 1.89024 11.4696 230 235 226
-3.59124 -1.43187 14.8454 88 74 71
1.41959 0.976181 8.77023 95 99 99
-0.161537 -1.22593 13.5799 126 104 109
3.3424 -2.02749 8.33397 163 170 159
-6.0399 1.66436 11.2008 173 183 175
-0.542511 -1.23943 13.626 206 185 196
-4.97705 -4.83121 10.2865 229 238 232
4.10685 -0.375924 7.73648 173 177 166
-6.89115 0.503256 11.2773 183 163 163
-4.01335 -3.81339 9.96897 206 213 206
2.75368 -1.2953 7.70761 216 218 212
3.95524 0.733506 7.7901 196 198 186
3.86941 1.48781 9.63901 160 137 149
-4.01783 0.801057 22.1653 145 138 154
4.34409 -1.06548 7.65113 217 223 212
3.80376 3.74154 9.91046 173 156 169
-4.78544 -0.645945 10.5483 129 140 132
4.56935 -1.02165 7.66213 178 184 170
4.02073 0.76304 9.57735 196 175 190
-3.03218 -4.59325 9.78195 224 234 227
3.8921 1.52773 9.62325 202 177 188
4.06337 0.573776 9.6179 151 132 142
-5.64875 -0.252417 10.9613 211 218 210
4.14028 -0.00933889 9.25067 80 82 74
3.62418 4.3095 10.0399 212 193 205
-0.441549 -1.37318 13.6052 193 173 181
3.56169 4.45864 9.94007 226 205 220
4.67953 -1.19249 7.65822 157 161 150
-0.248687 2.811 9.42539 145 127 132
2.09118 6.08547 23.7416 168 152 165
-3.79833 -5.42254 9.83601 203 212 202
0.922348 -1.04616 13.1944 208 188 198
0.922283 -1.04647 13.1976 207 186 197
4.6069 -0.897812 7.72235 220 224 214
3.9413 1.51414 9.45656 106 109 101
-0.97528 -3.41419 9.32527 131 132 134
4.64559 -1.12509 7.64427 218 224 211
-4.72093 -0.635228 10.5775 102 111 103
-0.106046 -1.16198 13.5616 148 123 127
0.398269 -2.44918 9.03023 146 133 138
-2.98769 0.219623 9.98498 107 108 106
0.985791 -0.753678 13.3114 150 132 137
-0.345612 -1.33905 13.4895 150 125 132
4.60192 -1.04455 7.67879 209 214 204
3.62037 4.42982 9.81715 175 154 168
3.78225 1.84547 8.3323 61 64 52
4.143 -1.03623 7.76834 179 184 173
2.22082 0.288922 8.56204 72 75 71
4.16314 -0.769403 7.7868 183 189 177
4.16314 -0.769403 7.7868 183 189 177
-3.75285 -0.926856 21.8422 149 141 157
4.04076 0.59834 9.36817 104 108 99
4.11688 -1.26222 9.5528 91 78 82
4.65996 -1.18728 7.6665 208 213 202
-0.5991 -1.13958 13.6243 217 195 207
-6.36393 0.597527 11.3373 225 233 224
0.529938 -1.12926 13.1688 115 96 99
-5.01574 -3.42527 10.4497 217 224 216
3.56411 3.60322 9.9972 104 90 90
-2.74955 -4.25824 9.63145 192 201 194
4.20437 -1.97321 9.43293 60 50 54
4.63709 -1.1128 7.70144 219 223 211
1.96879 3.36975 8.84468 110 111 104
2.58788 -1.80431 8.63278 205 214 206
4.59022 -0.928231 7.62482 218 222 211
3.74466 3.51099 9.54087 96 102 95
3.5894 4.57642 9.64591 76 79 72
-2.86786 -1.33448 9.95175 100 108 100
-5.74867 1.70991 11.1581 176 188 178
-5.74867 1.70991 11.1581 176 188 178
-2.99961 -0.24249 10.2446 111 110 108
3.62794 4.34837 9.86004 170 150 164
-1.67374 1.34599 9.81948 111 121 117
3.50248 4.57644 9.67646 112 114 109
-0.912558 -1.35165 11.4616 150 152 153
-5.18936 -1.69064 10.6278 182 192 183
3.81043 0.222205 8.05132 44 46 41
3.72302 3.69996 9.78105 142 126 138
-3.06523 -4.56956 9.80914 93 101 93
-4.25209 -5.39273 9.93133 210 219 209
4.27075 -1.74231 9.45806 221 201 218
4.06364 -7.37387 21.4944 172 153 164
-3.56866 -3.98798 11.3739 134 143 139
-2.48427 -3.4077 9.70767 106 108 107
-3.38226 -2.81475 9.94668 80 87 81
-1.7676 2.73116 9.6739 112 112 117
0.391353 -0.918346 13.3719 195 175 185
0.0145858 -1.0507 13.4903 186 168 175
-2.49081 2.11461 9.64735 227 234 229
10.288 3.8673 24.2173 66 69 62
-3.86981 -2.3457 9.61175 77 85 81
12.1808 -5.33172 25.0122 197 199 188
-1.69339 1.41465 9.69146 220 228 224
-0.792355 1.37424 9.37755 221 229 222
-0.792355 1.37424 9.37755 221 229 222
-3.2889 -1.51303 9.60257 93 93 85
-16.8561 -11.65 33.0324 235 241 233
-5.00496 -0.663522 10.5303 154 165 158
3.24981 2.3119 8.80136 135 119 120
-5.97269 -1.47063 11.0821 89 88 85
10.0264 -3.75334 23.9215 133 121 124
-0.514905 -2.11835 8.85646 91 81 85
3.16129 6.12898 28.8309 151 131 139
-0.258787 -3.40289 9.20451 207 218 216
-1.31891 -1.13679 13.8393 191 169 181
-1.92833 1.45029 9.35445 118 111 117
8.37663 -10.9312 26.9047 163 158 155
1.00441 -1.3332 13.0676 130 109 111
4.39138 -1.12139 9.25862 64 68 59
4.11688 -0.407856 7.87161 160 165 151
3.92546 1.66203 9.61646 167 146 158
-5.84752 0.0246709 10.7996 164 174 166
6.48179 -9.10966 25.5965 158 135 145
6.72093 -10.0893 26.2244 176 153 162
-2.36958 0.92255 9.53582 114 115 111
-17.5071 2.61791 36.5516 226 235 227
5.47225 -11.6425 28.2097 184 168 182
-2.77677 -1.46817 14.262 163 147 152
-4.43805 0.555023 12.3807 109 107 97
-5.41518 -0.113161 10.6811 149 157 148
3.99861 -0.0905319 9.74579 100 89 92
0.197069 1.07503 8.87005 141 123 131
-15.6076 2.75021 32.3532 176 187 180
3.98757 0.807759 9.62469 206 184 199
0.547354 -1.49824 13.3123 147 125 132
-4.65991 2.68225 12.2232 73 77 68
-3.72436 -2.51173 9.67649 56 61 55
-3.06058 1.82503 10.0364 136 131 144
-2.88485 1.79034 18.1768 185 195 191
-0.568932 -1.58284 13.6924 202 179 192
-0.568932 -1.58284 13.6924 202 179 192
7.21736 1.62987 27.3537 141 122 126
-1.30718 -11.256 28.2017 92 83 85
-2.36653 -1.77051 14.0616 70 62 45
-4.89652 -0.0439825 10.4867 227 238 228
-4.45082 -0.0677997 10.5275 194 203 199
-5.76468 0.59919 10.8327 212 222 214
-0.42283 -1.55009 13.5917 203 184 194
-2.2493 -0.233766 9.80295 226 230 225
-2.2493 -0.233766 9.80295 226 230 225
-3.49542 2.58636 10.4773 225 232 229
0.160988 1.37002 1.10849 222 229 222
-7.02925 0.566696 11.3633 228 234 224
0.315967 0.957676 0.860104 97 88 88
3.73307 3.47899 9.5718 61 59 59
0.546987 -3.86073 8.96597 85 92 85
-3.99379 -4.41282 10.0288 79 88 82
-1.81863 2.84044 9.82014 83 87 82
-2.1293 3.19058 10.0366 120 117 128
4.27751 -1.11826 7.82287 217 222 212
-0.19923 -4.09351 9.06458 156 168 165
0.512377 -1.32847 13.3385 153 133 137
-0.388795 -1.40295 13.5885 188 166 175
0.452938 -1.14147 13.3544 118 99 102
-5.31929 -0.122547 10.7979 46 56 49
0.0434588 1.18921 0.302728 54 44 43
-4.34517 0.562057 12.5422 140 134 148
-0.0698589 1.18008 -0.00119331 153 136 140
-0.0599931 -1.52642 13.505 164 145 150
-0.573844 -1.33787 13.5833 197 175 185
-3.85744 -3.80135 10.7825 70 75 69
0.412211 -1.34313 13.3635 136 117 123
4.47205 -1.92555 9.52341 164 146 161
-2.37644 -4.95128 9.64916 237 242 237
-7.11 0.374542 11.356 226 233 224
-7.02925 0.566696 11.3633 227 234 224
-0.659454 -4.16176 9.19333 102 94 98
-0.659454 -4.16176 9.19333 102 94 98
-0.374044 -1.34219 13.6549 167 143 150
-0.249879 -4.05615 9.01747 67 74 71
-3.78276 -5.901 9.89121 76 88 77
-4.60128 -5.26275 10.1793 75 84 74
4.51219 -0.906809 7.64935 203 208 197
-3.05419 1.18582 10.2093 140 128 141
4.58987 -1.10218 7.74679 222 227 215
-1.24295 -2.52392 9.44362 116 117 117
-4.32037 -5.41273 9.9989 91 105 98
4.44664 -8.26741 27.3563 172 152 162
-5.9357 -1.06006 10.8236 206 216 206
3.4614 4.3136 9.91093 106 90 90
-5.73405 -0.785347 10.8699 144 154 147
1.405 1.0446 8.58499 141 133 138
-4.89824 -2.47279 10.4827 70 78 72
-1.02666 -3.28164 9.37975 72 80 76
-1.71891 2.77329 9.78713 234 240 231
-0.375274 -1.24425 13.7595 214 193 204
-3.77467 -1.7602 22.1596 88 80 90
-5.38737 1.72805 10.9001 178 189 181
-2.81193 -9.10744 20.8036 79 73 75
2.5864 -2.04843 8.49897 66 71 66
-0.541957 -1.30334 13.6235 168 147 154
-0.541957 -1.30334 13.6235 168 147 154
-1.10798 -2.69272 9.42413 210 223 221
0.354455 -2.3227 9.08862 63 71 67
-4.75486 -3.01247 10.4167 92 104 96
4.39934 -1.99978 9.58902 173 155 174
-2.38185 -1.52888 14.1528 145 125 129
-5.4547 0.666172 10.8974 52 61 55
4.31802 -0.381957 12.3417 157 136 139
-4.18457 -2.8971 10.19 232 242 236
4.7313 -1.16102 7.74021 175 180 170
-3.67916 -4.09291 11.7657 138 129 139
4.47824 -1.99641 9.4196 62 62 60
-2.59905 -1.94562 25.834 51 45 48
-0.218554 2.34856 9.24939 102 108 107
-4.7771 -0.644328 10.5302 128 139 130
-4.86012 -2.51961 10.4886 219 229 223
4.28337 -0.799188 9.31242 78 80 78
-5.75098 -1.58059 10.8804 206 216 208
3.96684 0.246238 8.12616 75 77 67
4.436 -2.14786 9.53149 191 173 191
-5.57835 -1.71223 10.72 228 235 227
-5.38783 -1.38441 10.7035 199 206 199
-5.38783 -1.38441 10.7035 199 206 199
-4.26085 -0.135764 10.6593 103 110 106
-6.15535 -0.0254754 10.9741 121 130 121
-5.61949 1.51038 11.0324 49 61 52
-0.280621 -1.22693 13.646 202 180 190
4.38058 -1.97931 9.48241 182 166 184
3.84704 1.40754 8.37816 45 46 40
3.89705 1.02549 8.36112 80 83 76
-4.94294 -3.45712 10.4398 199 204 198
-1.93947 -1.85795 13.9507 172 153 160
-1.9992 -1.83287 13.9965 124 105 111
-1.9992 -1.83287 13.9965 124 105 111
-2.78291 3.65744 9.94608 214 224 216
5.17314 -1.01434 23.3882 141 120 118
4.91537 -1.05739 23.4664 147 127 123
6.56448 -0.344745 22.9585 172 154 158
0.459241 -1.28639 13.3592 119 100 100
-2.81306 -8.41897 21.626 164 157 174
-2.59786 -1.64462 14.1404 76 68 53
-2.59786 -1.64462 14.1404 76 68 53
0.0374591 -1.21464 13.4827 124 103 105
-0.61868 -1.40311 13.6359 145 123 130
-0.560663 -1.52773 13.6356 190 170 179
-1.64563 -1.25373 13.9233 136 120 131
-1.53084 -1.28206 13.9096 178 163 175
-0.523392 1.63016 10.0695 160 143 149
-0.523392 1.63016 10.0695 160 143 149
-1.73882 -1.78442 9.14742 73 80 74
0.921987 -1.47321 13.3089 112 95 96
-0.163516 -1.27716 13.2935 118 99 99
0.857429 -1.14787 13.3904 128 110 113
-0.0395971 -1.82685 13.3584 167 149 155
0.951444 -1.20783 13.3139 124 105 107
-0.138665 -1.29469 13.5283 174 155 158
-0.128042 -1.6161 13.4546 165 148 154
-0.31944 -1.86436 13.5511 196 180 187
1.32676 0.843835 8.87209 174 193 189
-0.435076 -0.909615 13.6042 86 74 75
1.01857 -1.36507 13.2626 116 97 99
-0.130497 -1.27183 13.6437 112 95 96
-1.33227 -1.04219 9.64715 103 114 107
-0.084872 1.40144 10.0488 220 218 213
-2.20765 -1.82015 14.1213 154 140 146
-2.34496 -1.93937 14.0443 69 66 53
-2.34496 -1.93937 14.0443 69 66 53
1.89612 -1.58608 12.9942 171 153 157
-1.16209 -1.92647 13.7083 158 139 145
-0.075201 -1.70309 13.5096 141 122 127
-1.33118 -1.2567 9.61312 195 209 204
0.455391 -1.28159 13.3478 110 95 96
0.523585 -1.33902 13.3652 140 124 125
-0.612701 -1.41678 13.6763 135 117 120
-1.47506 0.575965 9.70541 148 138 142
-1.47506 0.575965 9.70541 148 138 142
0.456253 -1.13977 13.3678 108 95 95
0.377045 -1.14341 13.3745 116 99 102
0.574398 -1.74774 13.3367 182 165 170
0.6927 -1.72703 13.2833 182 165 170
0.6927 -1.72703 13.2833 182 165 170
-0.383523 -1.84011 13.6039 172 156 161
-0.643854 -10.9493 27.1086 221 233 228
-3.2651 -1.52497 9.56249 124 115 116
0.846759 -1.2885 13.2598 118 100 101
0.775698 -1.49017 13.2856 122 105 106
1.42322 0.635132 8.99541 92 103 99
0.633102 1.42967 9.1298 201 223 220
-2.86557 -1.83646 9.99553 58 66 61
1.38797 0.800147 8.91516 78 91 89
1.38797 0.800147 8.91516 78 91 89
3.80601 -0.925258 12.594 111 93 92
3.80601 -0.925258 12.594 111 93 92
-0.722298 -0.103614 9.45838 223 237 231
3.78889 -0.986345 12.5356 152 131 132
-0.600332 2.20618 9.34072 98 108 104
-0.555789 -1.54702 13.6782 182 164 171
-1.1475 -1.15612 9.57887 149 131 140
1.64997 -1.42691 13.1127 136 117 120
-0.970805 2.13186 9.43524 101 105 103
-1.73463 -1.75238 14.0119 150 133 139
3.83686 -0.885648 12.5245 149 130 132
3.78763 -1.02858 12.4716 119 101 101
3.72946 -1.18944 12.5829 127 106 107
-0.417826 -1.57202 13.64 187 168 175
-0.168524 1.60916 11.2597 210 211 204
-0.63808 1.72278 10.8153 140 157 153
-0.63808 1.72278 10.8153 140 157 153
1.0978 -1.70528 13.3498 201 182 191
-0.3792 -1.38509 13.2401 180 163 167
1.93029 -1.29782 13.0758 113 96 95
-0.653645 2.15186 10.9505 160 175 170
0.115296 -1.79478 13.4836 205 188 198
-1.63338 -0.851238 11.2111 175 161 134
-2.92291 -1.39804 9.96906 81 93 88
0.132668 -0.856915 14.3325 91 78 77
0.19689 -1.92957 13.6355 157 139 145
1.90493 -1.39905 12.9961 148 129 130
0.0249808 -1.66661 13.558 170 153 159
0.200674 -1.78202 13.4612 197 179 188
-0.374465 3.21093 9.37228 224 236 231
-2.17582 -2.81172 9.80525 219 232 223
-2.07325 3.43546 9.80318 160 170 159
1.45929 0.956783 8.91298 107 118 113
4.27786 -1.24024 12.4316 168 149 152
-1.43291 -1.03198 9.63576 70 81 74
-0.113669 -1.65051 13.5194 172 154 160
-0.351216 -1.49452 13.5934 182 164 171
0.668324 -1.46905 13.294 150 132 138
-2.51904 1.8621 9.81287 198 211 202
5.71801 -0.316006 22.8262 110 97 100
9.54097 -3.37411 25.9593 128 105 105
9.54097 -3.37411 25.9593 128 105 105
4.44334 -1.14499 12.2313 153 138 141
9.54542 -3.50776 25.8927 176 153 156
5.40488 -13.7398 22.5015 168 148 153
9.6344 -3.40798 25.8925 167 143 145
5.8357 -0.386419 22.8821 179 161 166
1.7328 -1.34029 13.0477 136 119 120
-0.245537 2.82503 9.41011 221 236 232
-2.47589 3.60418 9.77533 207 218 209
-2.47589 3.60418 9.77533 207 218 209
-4.36041 -0.784393 10.2176 47 59 52
-3.70789 0.0955878 10.1129 43 46 42
-0.238865 2.38488 9.42318 212 232 229
-0.238865 2.38488 9.42318 212 232 229
-4.49489 -0.876758 10.3509 162 179 171
0.150871 -1.10393 9.15063 180 196 193
2.32064 0.897425 8.71158 82 75 75
2.32064 0.897425 8.71158 82 75 75
-4.11932 1.6399 10.3851 123 121 128
0.838175 -0.658949 8.99327 189 205 199
-2.33781 3.54359 10.0665 120 110 114
0.761703 0.0958716 9.06931 207 220 214
-2.3169 3.721 9.857 181 194 185
1.08338 -4.61782 9.87348 183 166 173
1.74169 -1.43653 12.9869 123 106 106
-4.43407 0.00808504 10.3541 210 221 212
-0.369634 -1.61531 13.498 187 172 177
-0.308168 -4.22177 9.26884 174 192 184
-4.59497 0.319212 10.8974 110 125 115
-0.164413 -1.04582 14.8159 102 93 91
1.21128 -3.03237 8.92199 95 106 96
-0.641799 -1.08822 9.44789 115 129 125
1.80722 -1.50789 13.0017 196 180 186
7.86333 0.0469681 21.9206 94 80 80
